289.97 -304.29 758.30
283.62 -289.53 731.18
282.04 -280.17 717.19
280.64 -271.20 704.07
278.70 -262.00 690.07
276.92 -253.22 676.96
269.16 -239.39 649.84
249.70 -215.99 595.62
247.05 -207.89 582.50
232.26 -190.04 541.39
223.10 -177.46 514.28
632.69 542.47 -238.98
647.51 570.85 -247.52
628.18 569.40 -243.11
620.27 578.00 -243.11
633.76 607.12 -251.66
604.09 594.89 -243.11
595.73 603.26 -243.11
587.36 611.42 -243.11
569.02 608.92 -238.98
570.27 627.38 -243.11
581.31 657.51 -251.66
562.79 654.53 -247.52
-205.72 -228.40 -149.92
-169.98 -194.03 -125.81
-176.00 -206.65 -132.39
-173.13 -209.05 -132.39
-170.23 -211.42 -132.39
-171.69 -219.44 -135.90
-170.83 -224.65 -137.65
-173.01 -234.24 -142.03
-168.20 -234.41 -140.72
-168.03 -241.14 -143.35
-174.21 -257.60 -151.68
-171.63 -261.48 -152.55
-23.17 -137.73 -405.63
-21.07 -136.75 -401.85
-18.71 -133.81 -392.39
-16.99 -135.02 -395.23
-15.16 -135.57 -396.17
-13.32 -136.09 -397.12
-11.42 -136.26 -397.12
-9.38 -134.13 -390.50
-7.46 -132.95 -386.72
-5.70 -134.99 -392.39
-3.85 -136.03 -395.23
-1.98 -136.40 -396.17
881.77 -965.66 -2013.65
906.56 -965.72 -2039.65
937.18 -971.16 -2078.23
974.26 -982.12 -2130.22
1005.99 -986.52 -2169.64
1031.71 -984.21 -2195.64
1032.98 -958.22 -2169.64
1033.55 -932.58 -2143.64
1039.76 -912.49 -2130.22
1039.40 -887.11 -2104.22
1038.54 -861.91 -2078.23
1037.19 -836.91 -2052.23
-113.18 -242.72 -342.78
-106.08 -235.82 -330.96
-102.90 -237.22 -330.96
-99.66 -238.60 -330.96
-96.40 -239.93 -330.96
-94.68 -245.25 -336.48
-93.52 -252.27 -344.36
-91.10 -256.42 -348.30
-88.20 -259.38 -350.66
-82.38 -253.53 -341.21
-77.87 -251.09 -336.48
-73.92 -250.36 -334.12
437.39 -1075.54 -1161.07
456.30 -1079.17 -1171.68
475.69 -1083.14 -1182.99
494.79 -1086.21 -1193.60
509.72 -1079.29 -1193.60
534.18 -1091.85 -1215.52
549.18 -1084.38 -1215.52
569.33 -1086.72 -1226.83
584.26 -1078.77 -1226.83
609.60 -1089.85 -1248.75
624.56 -1081.34 -1248.75
644.84 -1081.74 -1259.36
432.18 -1334.87 -323.93
455.79 -1343.47 -327.53
474.73 -1336.90 -327.53
493.35 -1330.14 -327.53
517.15 -1336.75 -330.90
536.00 -1329.31 -330.90
560.53 -1336.07 -334.50
579.37 -1328.01 -334.50
597.85 -1319.79 -334.50
616.22 -1311.32 -334.50
641.10 -1315.61 -337.88
666.43 -1320.45 -341.48
-107.48 57.37 6.38
-107.35 55.48 6.33
-107.18 53.60 6.28
-107.88 52.17 6.28
-115.80 54.12 6.70
-112.87 50.94 6.49
-119.04 51.81 6.80
-373.87 156.85 21.25
-368.51 148.89 20.83
-360.22 140.01 20.25
-357.37 133.47 19.99
-350.64 125.69 19.52
-1104.20 -1044.19 1368.37
-1073.36 -1043.07 1347.63
-1099.36 -1098.21 1399.15
-1172.98 -1204.10 1513.57
-1164.15 -1228.05 1523.61
-1155.17 -1252.72 1534.32
-1145.45 -1276.63 1544.35
-1135.56 -1301.26 1555.06
-1124.95 -1325.09 1565.10
-1121.48 -1358.05 1585.84
-1102.65 -1373.38 1585.84
-1083.85 -1388.26 1585.84
192.13 182.13 338.84
187.49 182.52 334.90
184.15 184.15 333.33
181.26 186.13 332.54
184.25 194.36 342.78
181.65 196.79 342.78
176.11 196.01 337.27
171.88 196.47 334.12
168.42 197.83 332.54
165.39 199.57 331.75
159.60 197.94 325.45
158.48 201.98 328.60
-112.91 100.70 -55.07
-105.70 91.82 -50.96
-102.59 86.79 -48.91
-95.01 78.27 -44.80
-91.63 73.49 -42.75
-90.36 70.55 -41.73
-90.52 68.81 -41.38
-90.66 67.06 -41.04
-97.63 70.26 -43.78
-101.62 71.13 -45.15
-104.10 70.85 -45.83
-105.80 70.00 -46.17
1524.89 -101.02 -1110.33
1539.07 -80.66 -1119.73
1527.10 -58.93 -1110.33
1540.70 -38.19 -1119.73
1541.08 -16.95 -1119.73
1541.17 4.30 -1119.73
1540.97 25.55 -1119.73
1540.47 46.80 -1119.73
1539.68 68.03 -1119.73
1538.59 89.25 -1119.73
1537.21 110.46 -1119.73
1547.64 132.68 -1128.55
-49.24 -264.13 -320.21
-44.89 -261.00 -315.61
-40.95 -259.69 -313.31
-36.49 -254.51 -306.42
-32.61 -252.45 -303.35
-29.45 -256.07 -307.18
-25.95 -257.74 -308.72
-22.85 -263.84 -315.61
-19.35 -266.70 -318.67
-15.70 -268.23 -320.21
-12.41 -278.69 -332.46
-8.81 -288.48 -343.95
1400.43 329.76 -1295.44
1395.93 348.30 -1295.44
1401.97 369.63 -1305.47
1396.94 388.19 -1305.47
1403.08 410.02 -1316.18
1397.52 428.60 -1316.18
1402.40 450.26 -1326.22
1407.58 472.61 -1336.92
1389.97 487.30 -1326.22
1405.02 513.61 -1346.96
1409.19 536.43 -1357.67
1401.95 555.07 -1357.67
679.66 208.83 37.26
676.68 218.30 37.26
658.47 222.50 36.43
641.18 226.68 35.64
637.95 235.61 35.64
634.60 244.49 35.64
631.17 253.22 35.64
627.57 262.00 35.64
609.19 264.38 34.80
633.67 285.58 36.43
629.67 294.29 36.43
625.50 303.05 36.43
-35.79 46.78 11.45
-38.85 49.37 12.21
-40.75 50.36 12.59
-42.07 50.55 12.78
-48.50 56.69 14.50
-46.67 53.07 13.74
-52.00 57.53 15.07
-100.88 108.60 28.81
-126.75 132.78 35.68
-146.45 149.23 40.64
-157.53 156.21 43.12
-164.58 158.82 44.46
452.68 -203.44 252.87
467.60 -202.74 259.68
457.91 -191.36 252.87
472.81 -190.26 259.68
501.05 -193.94 273.76
503.58 -187.28 273.76
519.48 -185.28 281.02
521.89 -178.38 281.02
524.21 -171.44 281.02
526.44 -164.47 281.02
567.85 -169.18 301.90
570.05 -161.63 301.90
34.62 104.98 49.22
30.70 97.60 45.55
28.02 93.65 43.52
26.23 92.27 42.71
24.70 91.74 42.30
21.41 84.11 38.64
17.25 71.96 32.95
14.85 65.95 30.10
11.67 55.42 25.22
9.85 50.20 22.78
11.60 63.82 28.88
10.41 62.17 28.06
426.47 693.21 -99.93
417.36 698.73 -99.93
408.05 704.21 -99.93
413.87 736.31 -103.71
411.67 755.68 -105.66
408.69 774.17 -107.49
54.65 106.94 -14.75
53.25 107.65 -14.75
51.82 108.34 -14.75
50.39 109.01 -14.75
45.30 101.51 -13.65
42.01 97.54 -13.04
-172.22 -241.35 -164.35
-175.35 -253.05 -170.65
-175.26 -260.52 -174.05
-173.13 -265.08 -175.50
-172.74 -272.61 -178.89
-170.80 -277.95 -180.83
-165.16 -277.27 -178.89
-156.95 -271.95 -174.05
-154.46 -276.38 -175.50
-151.52 -279.99 -176.47
-150.08 -286.71 -179.38
-150.45 -297.33 -184.71
-134.44 -263.39 -207.06
-136.27 -276.21 -215.66
-135.37 -283.94 -220.25
-130.12 -282.78 -217.96
-128.25 -289.01 -221.40
-127.53 -298.26 -227.14
-127.25 -309.04 -234.02
-124.84 -315.31 -237.46
-125.49 -330.00 -247.21
-123.51 -338.60 -252.37
-120.03 -343.33 -254.67
-115.86 -346.48 -255.82
-189.83 129.44 79.11
-193.96 128.38 80.09
-193.32 124.16 79.11
-197.43 122.98 80.09
-203.15 122.69 81.72
-206.45 120.84 82.37
-222.08 125.90 87.90
-230.43 126.47 90.51
-248.85 132.15 97.02
-259.06 133.03 100.27
-309.15 153.40 118.83
-311.24 149.12 118.83
-165.38 135.55 419.66
-165.74 132.21 416.10
-164.23 127.53 408.08
-164.09 123.97 403.63
-164.97 121.27 401.84
-166.20 118.81 400.95
-167.36 116.36 400.06
-168.89 114.13 400.06
-170.37 111.91 400.06
-171.84 109.64 400.06
-170.56 105.71 393.82
-173.12 104.14 396.50
-161.75 -206.44 2495.26
-154.96 -203.49 2433.60
-149.32 -201.72 2387.85
-146.52 -203.76 2387.85
-143.70 -205.76 2387.85
-139.91 -206.34 2371.93
-132.66 -201.50 2295.36
-128.97 -201.90 2279.44
-125.35 -202.33 2264.53
-120.88 -201.26 2233.70
-118.92 -204.24 2248.61
-116.09 -205.86 2248.61
253.35 478.30 229.75
246.99 481.62 229.75
246.71 497.22 235.61
240.18 500.41 235.61
68.55 147.81 69.16
285.13 636.82 296.17
56.57 130.98 60.56
51.65 124.07 57.05
45.54 113.64 51.97
41.73 108.21 49.23
39.34 106.17 48.06
37.31 104.95 47.28
417.20 375.78 109.14
411.98 381.50 109.14
418.06 397.97 112.20
423.13 413.92 115.06
407.00 409.28 112.20
401.32 414.85 112.20
395.56 420.34 112.20
389.73 425.76 112.20
404.05 453.82 118.11
397.84 459.28 118.11
381.35 452.71 115.06
375.07 457.92 115.06
-674.79 -651.41 -541.50
-656.63 -651.38 -534.00
-637.89 -650.48 -526.00
-638.54 -669.13 -534.00
-205.67 -221.48 -174.50
-197.99 -219.12 -170.50
-183.51 -208.82 -160.50
-171.09 -200.10 -152.00
-172.22 -207.08 -155.50
-171.02 -211.42 -157.00
-169.16 -215.12 -158.00
-166.74 -218.09 -158.50
-95.23 62.41 -79.73
-89.17 56.70 -73.99
-99.00 61.07 -81.45
-97.72 58.44 -79.73
-97.81 56.68 -79.15
-97.86 54.94 -78.58
-98.61 53.58 -78.58
-99.33 52.24 -78.58
-100.04 50.86 -78.58
-100.73 49.48 -78.58
-101.39 48.10 -78.58
-102.05 46.70 -78.58
-29.30 -107.10 -414.38
-27.38 -106.27 -409.55
-25.68 -106.16 -407.62
-24.03 -106.28 -406.65
-22.02 -104.60 -398.93
-20.62 -105.68 -401.83
-19.14 -106.48 -403.76
-17.31 -105.22 -397.96
-15.63 -104.70 -395.06
-13.99 -104.41 -393.13
-12.41 -104.35 -392.17
-10.86 -104.52 -392.17
1710.72 6.27 -871.66
1710.47 30.15 -871.66
1724.13 54.48 -878.93
1723.21 78.25 -878.93
1721.95 102.30 -878.93
1720.36 126.34 -878.93
1718.42 150.34 -878.93
1716.16 174.32 -878.93
1699.40 196.63 -871.66
1669.13 216.49 -857.59
1625.38 233.93 -836.70
1594.67 252.29 -822.63
29.97 -464.75 517.23
36.22 -464.30 517.23
43.51 -474.43 529.12
48.76 -463.16 517.23
56.33 -473.08 529.12
62.68 -472.28 529.12
70.56 -481.31 540.27
77.02 -480.32 540.27
51.49 -295.32 332.93
56.44 -299.86 338.87
59.99 -296.44 335.90
60.71 -280.56 318.81
6.19 2.47 190.88
6.19 2.57 191.88
6.41 2.76 199.88
6.24 2.80 195.88
6.14 2.85 193.88
6.07 2.92 192.88
6.03 3.00 192.88
6.21 3.19 199.88
6.78 3.61 219.87
8.78 4.83 286.83
8.71 4.95 286.83
8.64 5.06 286.83
13.06 7.92 218.47
13.54 8.48 228.44
13.71 8.85 233.43
13.88 9.24 238.42
13.74 9.44 238.42
13.61 9.63 238.42
13.70 9.98 242.41
14.79 11.09 264.35
17.55 13.56 317.23
16.49 13.11 301.26
15.87 12.99 293.28
15.47 13.03 289.29
-333.28 502.39 1855.51
-340.53 497.51 1855.51
-350.46 496.63 1870.73
-360.35 495.25 1884.99
-367.48 489.98 1884.99
-380.32 492.25 1914.48
-390.49 490.56 1929.69
-400.40 488.50 1943.96
-407.44 482.65 1943.96
-417.63 480.43 1959.18
-437.24 488.68 2018.14
-457.25 496.39 2077.11
806.01 776.45 -1200.15
795.64 787.07 -1200.15
778.09 790.13 -1189.18
759.99 792.51 -1177.48
742.56 794.91 -1166.51
731.95 804.69 -1166.51
721.36 814.20 -1166.51
703.37 815.43 -1154.81
713.25 849.12 -1189.18
661.78 809.40 -1121.17
644.33 809.45 -1109.46
633.54 817.93 -1109.46
-22.58 7.21 -82.67
-20.31 6.18 -74.02
-23.83 6.89 -86.51
-23.39 6.42 -84.59
-25.35 6.58 -91.32
-24.10 5.90 -86.51
-23.64 5.45 -84.59
-23.44 5.06 -83.63
-23.24 4.69 -82.67
-27.91 5.23 -99.01
-30.15 5.22 -106.70
-29.13 4.63 -102.86
264.16 -543.29 -4920.05
173.98 -345.62 -3151.33
175.18 -336.51 -3089.80
135.96 -252.62 -2336.45
139.43 -250.72 -2336.45
143.79 -250.36 -2351.34
149.11 -251.63 -2382.11
155.55 -254.43 -2428.76
163.07 -258.66 -2490.30
163.50 -251.58 -2443.65
165.90 -247.81 -2428.76
169.30 -245.50 -2428.76
144.97 218.70 -2136.95
145.02 225.37 -2182.61
143.89 230.55 -2213.38
131.97 217.99 -2075.41
128.99 219.77 -2075.41
125.95 221.53 -2075.41
114.75 208.38 -1937.45
111.87 209.95 -1937.45
3.85 7.47 -68.49
3.26 6.54 -59.55
3.38 7.03 -63.52
3.39 7.29 -65.51
663.28 -372.67 -2341.50
664.15 -361.51 -2327.24
664.64 -350.13 -2312.02
665.15 -339.06 -2297.75
665.21 -327.90 -2282.54
660.91 -314.81 -2253.05
665.14 -305.79 -2253.05
664.95 -294.94 -2238.79
664.31 -284.04 -2223.57
668.06 -275.08 -2223.57
662.84 -262.44 -2194.09
661.97 -251.86 -2179.82
-20.42 56.90 -93.09
-23.66 63.25 -104.00
-32.81 84.25 -139.22
-38.24 94.40 -156.83
-41.61 98.90 -165.22
-44.03 100.82 -169.41
-44.27 97.73 -165.22
-43.27 92.20 -156.83
-45.22 93.08 -159.35
-39.86 79.32 -136.70
-37.66 72.50 -125.80
-36.83 68.63 -119.93
-155.56 19.62 336.24
-157.07 17.65 338.96
-155.62 15.31 335.33
-154.97 13.12 333.52
-154.71 10.95 332.61
-154.43 8.82 331.71
-151.16 6.55 324.46
-149.54 4.44 320.83
-148.74 2.36 319.02
-144.96 0.33 310.86
-149.60 -1.72 320.83
-145.33 -3.65 311.77
81.16 -296.67 1006.03
75.20 -260.69 887.45
84.09 -276.96 946.74
86.57 -271.60 932.40
88.83 -265.94 917.10
79.12 -226.31 784.17
79.12 -216.69 754.52
80.58 -211.46 740.18
83.49 -210.33 740.18
88.05 -213.21 754.52
87.45 -203.64 724.88
92.15 -206.68 740.18
85.64 86.36 397.82
84.94 87.87 399.74
84.00 89.17 400.69
35.00 38.12 169.27
32.36 36.17 158.75
29.02 33.27 144.40
25.56 30.08 129.10
25.36 30.63 130.06
23.49 29.13 122.41
22.39 28.51 118.58
21.67 28.33 116.67
21.13 28.37 115.71
149.27 -38.57 278.13
149.80 -36.43 278.13
150.31 -34.29 278.13
150.78 -32.13 278.13
155.03 -30.73 285.13
153.55 -28.15 281.63
156.80 -26.44 286.88
162.44 -25.00 296.50
161.34 -22.47 293.87
165.01 -20.58 299.99
166.73 -18.38 302.62
171.81 -16.45 311.36
246.45 103.85 368.10
243.38 106.53 365.68
237.06 107.73 358.39
237.14 111.74 360.82
239.81 117.07 367.29
236.57 119.61 364.87
238.03 124.49 369.72
237.82 128.64 372.15
236.53 132.19 372.96
231.13 133.39 367.29
231.77 138.11 371.34
226.84 139.44 366.48
-271.49 84.82 230.33
-271.89 80.85 229.70
-267.00 75.40 224.67
-265.01 70.91 222.15
-264.46 66.87 220.89
-264.60 63.04 220.26
-253.32 56.62 210.19
-247.99 51.85 205.16
-239.52 46.65 197.61
-235.56 42.51 193.83
-227.69 37.86 186.91
-224.35 34.13 183.76
715.10 -1249.64 -25.13
732.04 -1239.79 -25.13
748.85 -1229.71 -25.13
765.74 -1219.27 -25.13
790.95 -1222.16 -25.41
807.52 -1211.28 -25.41
823.93 -1200.18 -25.41
848.85 -1201.10 -25.67
865.12 -1189.43 -25.67
891.03 -1190.20 -25.95
907.15 -1177.96 -25.95
932.41 -1177.25 -26.21
119.18 -217.06 -2356.02
124.70 -219.60 -2402.76
129.47 -220.59 -2433.60
136.02 -224.23 -2495.26
140.93 -225.01 -2526.09
144.14 -222.97 -2526.09
146.38 -219.49 -2510.17
149.51 -217.38 -2510.17
154.48 -217.86 -2541.00
160.52 -219.56 -2587.75
166.54 -221.08 -2633.49
172.70 -222.56 -2680.24
626.09 934.54 -1340.58
596.68 917.75 -1304.57
578.83 917.74 -1293.08
566.12 925.63 -1293.08
553.30 933.35 -1293.08
520.53 906.33 -1245.59
498.14 896.09 -1221.84
485.74 902.88 -1221.84
477.70 918.04 -1233.33
442.76 880.32 -1174.35
430.58 886.34 -1174.35
422.41 900.93 -1185.84
1290.94 -1032.76 -1653.22
1296.68 -1008.35 -1642.61
1292.98 -977.16 -1620.69
1297.04 -952.77 -1609.38
1301.42 -928.64 -1598.77
1296.08 -898.12 -1576.85
1280.77 -861.61 -1543.61
1283.64 -838.07 -1533.01
1286.12 -814.62 -1522.40
1297.09 -797.04 -1522.40
1298.23 -773.29 -1511.09
1299.59 -750.01 -1500.48
65.57 -787.48 153.60
77.71 -801.17 156.46
87.12 -785.39 153.60
95.86 -768.55 150.55
194.28 -1400.13 274.76
210.96 -1381.83 271.71
229.99 -1378.79 271.71
246.12 -1361.04 268.85
264.86 -1357.52 268.85
280.10 -1338.41 265.80
301.95 -1349.75 268.85
320.30 -1345.51 268.85
-1098.10 -1509.18 1356.02
-1084.66 -1534.75 1365.43
-1070.26 -1559.57 1374.24
-1062.56 -1595.05 1392.46
-1033.88 -1599.35 1383.65
-998.40 -1592.21 1365.43
-995.69 -1637.62 1392.46
-960.28 -1629.59 1374.24
-919.27 -1610.35 1347.20
-884.85 -1600.93 1328.98
-862.70 -1612.97 1328.98
-834.43 -1613.22 1319.58
245.07 -154.86 345.49
246.63 -151.14 344.72
251.98 -149.73 349.32
251.79 -144.96 346.25
252.64 -140.85 344.72
257.93 -139.23 349.32
257.55 -134.47 346.25
216.32 -109.22 288.80
221.85 -108.20 294.16
225.07 -105.96 296.46
235.85 -107.14 308.72
242.02 -105.94 314.84
24.44 -25.92 253.51
24.70 -25.48 252.52
25.05 -25.14 252.52
23.90 -23.33 237.66
24.22 -23.00 237.66
24.54 -22.66 237.66
24.85 -22.32 237.66
25.15 -21.98 237.66
25.45 -21.63 237.66
25.75 -21.28 237.66
25.17 -20.22 229.74
25.01 -19.53 225.78
-427.58 -422.68 2243.85
-424.59 -431.16 2258.33
-418.75 -436.82 2258.33
-415.67 -445.44 2273.79
-412.26 -453.86 2288.28
-408.86 -462.46 2303.73
-402.69 -467.84 2303.73
-398.86 -476.19 2318.22
-395.04 -484.72 2333.68
-390.91 -493.02 2348.17
-386.77 -501.51 2363.62
-382.33 -509.77 2378.11
-89.33 31.00 -73.88
-89.75 29.77 -73.88
-90.15 28.55 -73.88
-90.53 27.30 -73.88
-90.90 26.06 -73.88
-91.25 24.81 -73.88
-91.58 23.56 -73.88
-85.00 20.63 -68.34
-88.35 20.17 -70.80
-90.16 19.28 -72.03
-78.05 15.58 -62.18
-85.23 15.80 -67.72
-50.50 57.61 -113.58
-51.29 56.91 -113.58
-52.06 56.20 -113.58
-52.83 55.48 -113.58
-53.59 54.74 -113.58
-54.33 54.01 -113.58
-51.45 49.76 -106.12
-53.75 50.59 -109.43
-55.27 50.59 -111.09
-53.04 47.22 -105.29
-48.61 42.10 -95.34
-50.04 42.15 -97.00
-21.45 -20.21 -127.64
-21.64 -20.98 -130.57
-20.23 -20.18 -123.74
-20.72 -21.27 -128.62
-19.49 -20.58 -122.77
-18.74 -20.35 -119.85
-18.15 -20.28 -117.90
-16.53 -19.01 -109.13
-15.54 -18.38 -104.26
-14.99 -18.25 -102.31
-14.59 -18.29 -101.33
-15.43 -19.92 -109.13
446.05 -276.45 -2468.84
447.28 -268.44 -2454.17
448.25 -260.26 -2438.52
449.21 -252.29 -2423.85
449.85 -244.25 -2408.20
450.58 -236.26 -2393.53
450.94 -228.28 -2377.88
448.41 -218.90 -2347.55
451.50 -212.46 -2347.55
448.62 -203.32 -2317.23
451.52 -196.80 -2317.23
451.41 -189.11 -2302.56
-16.95 26.26 -177.27
-15.19 22.85 -155.60
-16.38 23.93 -164.46
-16.11 22.85 -158.55
-16.11 22.21 -155.60
-15.27 20.46 -144.77
-15.97 20.80 -148.71
-15.50 19.62 -141.81
-16.31 20.08 -146.74
-16.92 20.26 -149.69
-17.31 20.16 -150.68
-17.70 20.05 -151.66
712.20 -1213.91 -1139.70
735.09 -1214.74 -1149.77
757.95 -1214.38 -1159.21
781.13 -1214.41 -1169.28
804.24 -1213.24 -1178.72
834.27 -1222.07 -1198.23
858.19 -1220.63 -1208.30
881.56 -1218.28 -1217.73
905.70 -1215.98 -1227.80
936.82 -1222.66 -1247.31
960.81 -1218.78 -1256.75
985.14 -1215.25 -1266.82
1128.63 499.91 -575.61
1109.28 509.74 -569.27
1089.06 518.75 -562.50
1069.70 527.52 -556.17
1049.41 535.62 -549.40
1029.90 543.70 -543.06
1009.58 550.90 -536.30
990.05 558.09 -529.96
969.72 564.39 -523.20
961.95 577.54 -523.20
930.01 575.96 -510.10
921.98 588.73 -510.10
-24.54 61.97 17.86
-22.03 53.61 15.53
-24.24 56.87 16.56
-22.24 50.36 14.75
-25.30 55.34 16.31
-23.54 49.77 14.75
-22.91 46.86 13.98
-22.65 44.83 13.46
-22.78 43.68 13.20
-23.34 43.38 13.20
-23.91 43.07 13.20
-28.78 50.31 15.53
-624.48 1240.02 1842.45
-641.30 1231.40 1842.45
-658.22 1222.44 1842.45
-674.80 1213.37 1842.45
-691.25 1204.07 1842.45
-707.58 1194.55 1842.45
-729.00 1192.90 1855.23
-745.18 1182.86 1855.23
-766.12 1180.18 1867.21
-777.10 1162.14 1855.23
-798.17 1158.75 1867.21
-813.87 1147.77 1867.21
51.86 -195.58 380.55
56.68 -202.05 394.68
60.63 -204.82 401.74
153.52 -492.58 970.36
158.21 -483.20 956.23
125.02 -364.10 724.02
127.89 -355.63 710.77
130.33 -346.73 696.65
129.96 -331.28 669.27
134.69 -329.39 669.27
139.39 -327.42 669.27
141.21 -318.96 656.03
262.87 101.12 373.76
260.28 104.42 372.16
258.19 107.95 371.37
256.06 111.39 370.57
258.28 116.78 376.16
250.03 117.44 366.57
245.07 119.42 361.78
241.71 122.15 359.39
239.40 125.31 358.59
237.05 128.44 357.79
235.17 131.86 357.79
237.42 137.63 364.18
474.20 3.31 319.86
460.85 9.41 310.91
448.25 15.18 302.52
460.43 21.87 310.91
460.09 28.06 310.91
447.27 33.32 302.52
433.57 38.16 293.58
433.02 43.98 293.58
445.56 51.32 302.52
431.67 55.68 293.58
418.57 59.72 285.19
430.02 67.26 293.58
1090.85 378.38 -1648.95
1093.76 395.93 -1661.24
1088.34 410.60 -1661.24
1091.34 428.35 -1674.35
1085.48 442.98 -1674.35
1087.35 460.88 -1686.63
1089.46 479.15 -1699.74
1090.75 497.31 -1712.03
1092.27 515.85 -1725.13
1093.06 534.07 -1737.42
1085.78 548.71 -1737.42
1094.07 571.48 -1762.82
1093.86 591.45 -1775.92
1093.11 610.67 -1788.21
1084.47 625.87 -1788.21
1091.02 649.86 -1813.60
1089.77 669.65 -1826.71
1095.34 694.32 -1852.10
1092.86 714.06 -1864.39
1090.40 734.37 -1877.50
1094.78 759.47 -1902.89
1091.20 779.50 -1915.18
1087.61 800.10 -1928.28
1090.65 825.75 -1953.68
-68.17 -401.78 485.67
-62.56 -402.70 485.67
-58.20 -413.09 497.16
-52.43 -413.86 497.16
-46.65 -414.55 497.16
-40.85 -415.16 497.16
-34.98 -415.70 497.16
-28.50 -406.53 485.67
-23.36 -416.51 497.16
-17.14 -407.17 485.67
-11.38 -407.37 485.67
-5.69 -407.49 485.67
-12.03 -70.15 -449.40
-10.94 -69.70 -445.45
-9.92 -69.53 -443.47
-8.92 -69.51 -442.48
-7.81 -68.54 -435.57
-6.78 -68.03 -431.62
-5.71 -66.71 -422.73
-4.72 -66.16 -418.78
-3.77 -65.91 -416.80
-2.83 -65.80 -415.82
-1.90 -65.67 -414.83
-0.97 -65.70 -414.83
543.11 869.16 -1360.08
526.24 868.24 -1347.30
504.92 859.23 -1322.54
479.33 842.05 -1285.80
467.82 848.50 -1285.80
451.69 846.30 -1273.03
435.99 844.35 -1261.05
411.82 824.90 -1223.51
396.63 822.30 -1211.53
385.25 827.69 -1211.53
370.01 824.07 -1198.75
366.16 846.15 -1223.51
-226.69 142.59 355.39
-229.64 140.12 356.99
-227.92 134.79 351.40
-228.17 130.78 349.00
-228.90 127.04 347.41
-230.08 123.63 346.61
-231.76 120.44 346.61
-233.38 117.28 346.61
-231.18 112.21 341.02
-230.51 108.03 337.82
-234.72 106.08 341.82
-233.93 101.91 338.62
-647.24 -1242.81 1793.51
-626.76 -1242.93 1781.69
-610.22 -1251.13 1781.69
-589.59 -1250.10 1769.08
-561.21 -1232.04 1732.84
-541.07 -1230.26 1720.23
-521.10 -1228.83 1708.41
-501.24 -1226.43 1695.80
-488.54 -1242.13 1708.41
-472.24 -1248.42 1708.41
-458.79 -1263.26 1720.23
-395.22 -1134.27 1537.41
303.44 262.11 231.50
299.84 266.21 231.50
301.26 274.99 235.50
294.96 276.70 233.50
294.86 284.35 236.50
292.81 290.16 238.00
289.39 294.79 238.50
285.95 299.33 239.00
281.79 303.24 239.00
282.28 312.19 243.00
280.24 318.65 245.00
277.00 323.76 246.00
-55.87 -417.60 -136.89
-52.14 -435.33 -142.46
-47.73 -451.14 -147.40
-44.47 -483.00 -157.60
-40.10 -512.96 -167.18
-33.94 -527.70 -171.81
-29.63 -587.01 -190.97
-22.10 -602.56 -195.92
-14.11 -617.07 -200.55
-5.71 -617.21 -200.55
2.80 -617.23 -200.55
12.39 -676.09 -219.71
1045.36 911.28 -2219.34
1044.93 936.57 -2245.63
1044.00 962.02 -2271.92
1048.16 993.27 -2310.93
1034.36 1007.63 -2310.93
1008.76 1010.17 -2284.64
954.86 982.93 -2193.05
912.83 965.96 -2126.90
871.81 948.42 -2061.60
830.94 929.68 -1995.46
791.27 910.25 -1930.16
752.30 889.91 -1864.86
-308.76 543.51 1815.40
-316.51 539.04 1815.40
-321.49 530.00 1800.27
-329.04 525.35 1800.27
-342.00 529.06 1829.58
-358.03 536.84 1874.02
-437.19 635.40 2239.93
-446.23 629.07 2239.93
-455.19 622.62 2239.93
-466.99 619.95 2254.12
-475.82 613.20 2254.12
-487.80 610.40 2269.24
0.29 -77.79 441.19
1.28 -77.78 441.19
2.29 -78.98 448.09
3.32 -79.64 452.03
4.36 -79.93 454.00
5.20 -77.45 440.21
6.20 -77.55 441.19
7.17 -77.46 441.19
8.16 -77.37 441.19
9.14 -77.26 441.19
10.27 -78.34 448.09
14.93 -103.64 593.84
103.98 -401.50 -14.48
114.21 -416.36 -15.08
141.94 -489.53 -17.80
162.37 -531.41 -19.40
184.32 -573.75 -21.04
202.41 -600.41 -22.13
211.09 -597.42 -22.13
160.38 -434.03 -16.16
164.06 -425.17 -15.91
168.63 -419.07 -15.77
171.21 -408.29 -15.46
178.23 -408.54 -15.57
11.51 -16.77 -45.68
11.75 -16.60 -45.68
11.99 -16.42 -45.68
14.44 -19.17 -53.90
15.71 -20.24 -57.55
16.52 -20.64 -59.38
17.07 -20.72 -60.29
17.64 -20.77 -61.21
17.94 -20.51 -61.21
18.24 -20.25 -61.21
16.04 -17.30 -52.99
17.70 -18.53 -57.55
91.56 -36.88 -395.88
90.02 -34.83 -387.15
89.59 -33.25 -383.27
89.58 -31.85 -381.33
88.18 -29.99 -373.56
87.67 -28.47 -369.68
87.58 -27.13 -367.74
86.32 -25.44 -360.95
85.74 -23.99 -357.07
83.72 -22.18 -347.37
80.97 -20.26 -334.75
79.83 -18.81 -328.93
